    1
  381   97
  0.274302E-01  0.287615E-01  0.300487E-01  0.312946E-01  0.325020E-01
  0.336734E-01  0.348109E-01  0.359166E-01  0.369923E-01  0.380399E-01
  0.390609E-01  0.400569E-01  0.410291E-01  0.419791E-01  0.429078E-01
  0.438166E-01  0.447063E-01  0.455779E-01  0.464324E-01  0.472704E-01
  0.480927E-01  0.488999E-01  0.496926E-01  0.504713E-01  0.512363E-01
  0.519881E-01  0.527268E-01  0.534526E-01  0.541658E-01  0.548664E-01
  0.555546E-01  0.562302E-01  0.568934E-01  0.575439E-01  0.581818E-01
  0.588068E-01  0.594189E-01  0.600179E-01  0.606036E-01  0.611757E-01
  0.617341E-01  0.622787E-01  0.628091E-01  0.633253E-01  0.638269E-01
  0.643140E-01  0.647863E-01  0.652437E-01  0.656860E-01  0.661131E-01
  0.665249E-01  0.669213E-01  0.673023E-01  0.676677E-01  0.680176E-01
  0.683519E-01  0.686706E-01  0.689736E-01  0.692609E-01  0.695325E-01
  0.697882E-01  0.700280E-01  0.702516E-01  0.704591E-01  0.706501E-01
  0.708245E-01  0.709821E-01  0.711226E-01  0.712459E-01  0.713514E-01
  0.714388E-01  0.715076E-01  0.715570E-01  0.715867E-01  0.715961E-01
  0.715844E-01  0.715510E-01  0.714951E-01  0.714160E-01  0.713127E-01
  0.711845E-01  0.710306E-01  0.708500E-01  0.706418E-01  0.704050E-01
  0.701388E-01  0.698425E-01  0.695150E-01  0.691555E-01  0.687631E-01
  0.683371E-01  0.678767E-01  0.673815E-01  0.668511E-01  0.662848E-01
  0.656826E-01  0.650441E-01  0.643692E-01  0.636579E-01  0.629104E-01
  0.621268E-01  0.613077E-01  0.604533E-01  0.595644E-01  0.586418E-01
  0.576863E-01  0.566989E-01  0.556806E-01  0.546326E-01  0.535562E-01
  0.524528E-01  0.513238E-01  0.501706E-01  0.489948E-01  0.477980E-01
  0.465815E-01  0.453468E-01  0.440953E-01  0.428284E-01  0.415473E-01
  0.402529E-01  0.389461E-01  0.376276E-01  0.362975E-01  0.349558E-01
  0.336022E-01  0.322366E-01  0.308584E-01  0.294675E-01  0.280646E-01
  0.266522E-01  0.252366E-01  0.238320E-01  0.224662E-01  0.211860E-01
  0.200614E-01  0.194524E-01  0.190068E-01  0.187205E-01  0.185686E-01
  0.185211E-01  0.185548E-01  0.186559E-01  0.188160E-01  0.190294E-01
  0.192914E-01  0.196267E-01  0.200517E-01  0.205773E-01  0.212125E-01
  0.219666E-01  0.228493E-01  0.238713E-01  0.250447E-01  0.263836E-01
  0.279040E-01  0.296260E-01  0.315731E-01  0.337686E-01  0.362018E-01
  0.389631E-01  0.421176E-01  0.456987E-01  0.497797E-01  0.544665E-01
  0.599265E-01  0.662937E-01  0.738677E-01  0.830166E-01  0.943786E-01
  0.108898E+00  0.128443E+00  0.156794E+00  0.203683E+00  0.299244E+00
  0.316599E+00 -0.350833E+00 -0.327802E+00 -0.229476E+00 -0.178758E+00
 -0.146979E+00 -0.124663E+00 -0.107906E+00 -0.947529E-01 -0.841334E-01
 -0.753528E-01 -0.679829E-01 -0.616769E-01 -0.562571E-01 -0.515378E-01
 -0.474103E-01 -0.438266E-01 -0.406184E-01 -0.377661E-01 -0.352386E-01
 -0.329964E-01 -0.310076E-01 -0.292458E-01 -0.276904E-01 -0.263264E-01
 -0.251250E-01 -0.240692E-01 -0.231504E-01 -0.223580E-01 -0.216795E-01
 -0.210984E-01 -0.205887E-01 -0.201307E-01 -0.197264E-01 -0.193744E-01
 -0.190750E-01 -0.188331E-01 -0.186598E-01 -0.185738E-01 -0.186040E-01
 -0.187898E-01 -0.191931E-01 -0.192678E-01 -0.192332E-01 -0.191409E-01
 -0.190230E-01 -0.189011E-01 -0.187921E-01 -0.187093E-01 -0.186629E-01
 -0.186612E-01 -0.187105E-01 -0.188158E-01 -0.189808E-01 -0.192084E-01
 -0.195004E-01 -0.198578E-01 -0.202812E-01 -0.207702E-01 -0.213240E-01
 -0.219416E-01 -0.226213E-01 -0.233612E-01 -0.241592E-01 -0.250129E-01
 -0.259196E-01 -0.268765E-01 -0.278807E-01 -0.289291E-01 -0.300185E-01
 -0.311458E-01 -0.323076E-01 -0.335006E-01 -0.347216E-01 -0.359671E-01
 -0.372338E-01 -0.385182E-01 -0.398170E-01 -0.411267E-01 -0.424441E-01
 -0.437658E-01 -0.450886E-01 -0.464091E-01 -0.477242E-01 -0.490307E-01
 -0.503254E-01 -0.516055E-01 -0.528677E-01 -0.541092E-01 -0.553270E-01
 -0.565183E-01 -0.576801E-01 -0.588098E-01 -0.599049E-01 -0.609628E-01
 -0.619812E-01 -0.629577E-01 -0.638902E-01 -0.647764E-01 -0.656144E-01
 -0.664022E-01 -0.671380E-01 -0.678201E-01 -0.684473E-01 -0.690181E-01
 -0.695313E-01 -0.699859E-01 -0.703810E-01 -0.707159E-01 -0.709903E-01
 -0.712038E-01 -0.713563E-01 -0.714480E-01 -0.714791E-01 -0.714501E-01
 -0.713617E-01 -0.712149E-01 -0.710107E-01 -0.707507E-01 -0.704363E-01
 -0.700690E-01 -0.696509E-01 -0.691837E-01 -0.686696E-01 -0.681109E-01
 -0.675099E-01 -0.668692E-01 -0.661912E-01 -0.654787E-01 -0.647342E-01
 -0.639607E-01 -0.631608E-01 -0.623375E-01 -0.614933E-01 -0.606312E-01
 -0.597536E-01 -0.588634E-01 -0.579629E-01 -0.570546E-01 -0.561409E-01
 -0.552241E-01 -0.543061E-01 -0.533889E-01 -0.524744E-01 -0.515642E-01
 -0.506598E-01 -0.497624E-01 -0.488732E-01 -0.479930E-01 -0.471226E-01
 -0.462624E-01 -0.454128E-01 -0.445740E-01 -0.437459E-01 -0.429283E-01
 -0.421206E-01 -0.413222E-01 -0.405323E-01 -0.397499E-01 -0.389737E-01
 -0.382023E-01 -0.374343E-01 -0.366679E-01 -0.359012E-01 -0.351323E-01
 -0.343591E-01 -0.335791E-01 -0.327901E-01 -0.319894E-01 -0.311743E-01
 -0.303420E-01 -0.294896E-01 -0.286138E-01 -0.277114E-01 -0.267789E-01
 -0.258124E-01 -0.248079E-01 -0.237610E-01 -0.226666E-01 -0.215193E-01
 -0.203127E-01 -0.190394E-01 -0.176904E-01 -0.162551E-01 -0.147204E-01
 -0.130702E-01 -0.112852E-01 -0.934381E-02 -0.722863E-02 -0.494393E-02
 -0.255373E-02 -0.210602E-03  0.208397E-02  0.441006E-02  0.674152E-02
  0.903133E-02  0.112464E-01  0.133705E-01  0.153992E-01  0.173351E-01
  0.191837E-01  0.209515E-01  0.226450E-01  0.242701E-01  0.258325E-01
  0.273370E-01  0.287881E-01  0.301894E-01  0.315446E-01  0.328567E-01
  0.341285E-01  0.353626E-01  0.365613E-01  0.377266E-01  0.388606E-01
  0.399650E-01  0.410415E-01  0.420917E-01  0.431170E-01  0.441188E-01
  0.450982E-01  0.460565E-01  0.469947E-01  0.479137E-01  0.488144E-01
  0.496978E-01  0.505643E-01  0.514148E-01  0.522499E-01  0.530699E-01
  0.538754E-01  0.546666E-01  0.554440E-01  0.562076E-01  0.569577E-01
  0.576945E-01  0.584179E-01  0.591281E-01  0.598250E-01  0.605085E-01
  0.611786E-01  0.618352E-01  0.624781E-01  0.631072E-01  0.637224E-01
  0.643233E-01  0.649099E-01  0.654820E-01  0.660394E-01  0.665818E-01
  0.671092E-01  0.676214E-01  0.681182E-01  0.685995E-01  0.690652E-01
  0.695150E-01  0.699489E-01  0.703669E-01  0.707688E-01  0.711547E-01
  0.715243E-01  0.718778E-01  0.722151E-01  0.725361E-01  0.728407E-01
  0.731290E-01  0.734008E-01  0.736560E-01  0.738944E-01  0.741159E-01
  0.743204E-01  0.745076E-01  0.746773E-01  0.748292E-01  0.749632E-01
  0.750788E-01  0.751756E-01  0.752531E-01  0.753106E-01  0.753477E-01
  0.753637E-01  0.753581E-01  0.753302E-01  0.752792E-01  0.752043E-01
  0.751047E-01  0.749795E-01  0.748281E-01  0.746496E-01  0.744429E-01
  0.742071E-01  0.739416E-01  0.736453E-01  0.733176E-01  0.729574E-01
  0.725641E-01  0.721367E-01  0.716747E-01  0.711776E-01  0.706449E-01
  0.700762E-01  0.694713E-01  0.688298E-01  0.681519E-01  0.674373E-01
  0.666863E-01  0.658992E-01  0.650762E-01  0.642180E-01  0.633251E-01
  0.623983E-01  0.614384E-01  0.604464E-01  0.594234E-01  0.583706E-01
  0.572891E-01  0.561803E-01  0.550457E-01  0.538866E-01  0.527045E-01
  0.515010E-01  0.502774E-01  0.490351E-01  0.477754E-01  0.464997E-01
  0.452089E-01  0.439041E-01  0.425860E-01  0.412551E-01  0.399115E-01
  0.385550E-01  0.371855E-01  0.358026E-01  0.344061E-01  0.329960E-01
  0.315735E-01  0.301416E-01  0.287076E-01  0.272862E-01  0.259043E-01
  0.246040E-01  0.234465E-01  0.228031E-01  0.222972E-01  0.219384E-01
  0.217171E-01  0.216101E-01  0.215956E-01  0.216586E-01  0.217898E-01
  0.219824E-01  0.222312E-01  0.225624E-01  0.229942E-01  0.235387E-01
  0.242060E-01  0.250059E-01  0.259490E-01  0.270466E-01  0.283116E-01
  0.297589E-01  0.314057E-01  0.332733E-01  0.353868E-01  0.377711E-01
  0.404128E-01  0.434114E-01  0.468376E-01  0.507270E-01  0.551590E-01
  0.602494E-01  0.661816E-01  0.731021E-01  0.813405E-01  0.913024E-01
  0.103693E+00  0.119559E+00  0.140969E+00  0.172122E+00  0.223843E+00
  0.329487E+00  0.350833E+00 -0.388760E+00 -0.361391E+00 -0.252850E+00
 -0.196872E+00 -0.161871E+00 -0.137341E+00 -0.118952E+00 -0.104539E+00
 -0.929172E-01 -0.833177E-01 -0.752676E-01 -0.683838E-01 -0.624705E-01
 -0.573232E-01 -0.528226E-01 -0.489164E-01 -0.454194E-01 -0.423106E-01
 -0.395567E-01 -0.371150E-01 -0.349511E-01 -0.330364E-01 -0.313488E-01
 -0.298720E-01 -0.285752E-01 -0.274404E-01 -0.264579E-01 -0.256159E-01
 -0.249008E-01 -0.242940E-01 -0.237671E-01 -0.232991E-01 -0.228917E-01
 -0.225442E-01 -0.222575E-01 -0.220381E-01 -0.218981E-01 -0.218574E-01
 -0.219428E-01 -0.221868E-01 -0.226379E-01 -0.228307E-01 -0.229196E-01
 -0.229480E-01 -0.229437E-01 -0.229270E-01 -0.229142E-01 -0.229185E-01
 -0.229508E-01 -0.230196E-01 -0.231317E-01 -0.232926E-01 -0.235064E-01
 -0.237766E-01 -0.241053E-01 -0.244943E-01 -0.249441E-01 -0.254551E-01
 -0.260267E-01 -0.266583E-01 -0.273485E-01 -0.280958E-01 -0.288983E-01
 -0.297538E-01 -0.306599E-01 -0.316142E-01 -0.326138E-01 -0.336558E-01
 -0.347374E-01 -0.358554E-01 -0.370066E-01 -0.381880E-01 -0.393963E-01
 -0.406283E-01 -0.418807E-01 -0.431501E-01 -0.444332E-01 -0.457268E-01
 -0.470275E-01 -0.483322E-01 -0.496375E-01 -0.509403E-01 -0.522373E-01
 -0.535255E-01 -0.548019E-01 -0.560632E-01 -0.573067E-01 -0.585293E-01
 -0.597281E-01 -0.609002E-01 -0.620429E-01 -0.631534E-01 -0.642292E-01
 -0.652678E-01 -0.662669E-01 -0.672241E-01 -0.681373E-01 -0.690042E-01
 -0.698230E-01 -0.705916E-01 -0.713082E-01 -0.719713E-01 -0.725795E-01
 -0.731313E-01 -0.736257E-01 -0.740616E-01 -0.744380E-01 -0.747544E-01
 -0.750103E-01 -0.752054E-01 -0.753397E-01 -0.754132E-01 -0.754262E-01
 -0.753793E-01 -0.752731E-01 -0.751085E-01 -0.748867E-01 -0.746091E-01
 -0.742771E-01 -0.738924E-01 -0.734568E-01 -0.729722E-01 -0.724407E-01
 -0.718645E-01 -0.712459E-01 -0.705875E-01 -0.698918E-01 -0.691613E-01
 -0.683987E-01 -0.676067E-01 -0.667881E-01 -0.659457E-01 -0.650820E-01
 -0.641999E-01 -0.633019E-01 -0.623906E-01 -0.614684E-01 -0.605378E-01
 -0.596010E-01 -0.586601E-01 -0.577173E-01 -0.567743E-01 -0.558330E-01
 -0.548949E-01 -0.539614E-01 -0.530338E-01 -0.521130E-01 -0.512000E-01
 -0.502953E-01 -0.493995E-01 -0.485129E-01 -0.476355E-01 -0.467673E-01
 -0.459080E-01 -0.450570E-01 -0.442137E-01 -0.433773E-01 -0.425467E-01
 -0.417207E-01 -0.408979E-01 -0.400767E-01 -0.392555E-01 -0.384324E-01
 -0.376054E-01 -0.367723E-01 -0.359309E-01 -0.350788E-01 -0.342133E-01
 -0.333317E-01 -0.324312E-01 -0.315088E-01 -0.305612E-01 -0.295852E-01
 -0.285770E-01 -0.275328E-01 -0.264484E-01 -0.253193E-01 -0.241401E-01
 -0.229052E-01 -0.216080E-01 -0.202406E-01 -0.187938E-01 -0.172566E-01
 -0.156153E-01 -0.138535E-01 -0.119515E-01 -0.988783E-02 -0.764555E-02
 -0.523051E-02 -0.270992E-02 -0.241483E-03  0.217445E-02  0.462135E-02
  0.707269E-02  0.948036E-02  0.118104E-01  0.140460E-01  0.161826E-01
  0.182226E-01  0.201716E-01  0.220362E-01  0.238232E-01  0.255387E-01
  0.271885E-01  0.287778E-01  0.303109E-01  0.317921E-01  0.332249E-01
  0.346125E-01  0.359579E-01  0.372637E-01  0.385323E-01  0.397659E-01
  0.409666E-01  0.421362E-01  0.432764E-01  0.443889E-01  0.454751E-01
  0.465364E-01  0.475741E-01  0.485894E-01  0.495833E-01  0.505569E-01
  0.515110E-01  0.524465E-01  0.533642E-01  0.542647E-01  0.551486E-01
  0.560164E-01  0.568687E-01  0.577057E-01  0.585278E-01  0.593352E-01
  0.601282E-01  0.609068E-01  0.616712E-01  0.624214E-01  0.631574E-01
  0.638793E-01  0.645869E-01  0.652801E-01  0.659589E-01  0.666231E-01
  0.672726E-01  0.679071E-01  0.685265E-01  0.691307E-01  0.697194E-01
  0.702926E-01  0.708499E-01  0.713914E-01  0.719168E-01  0.724261E-01
  0.729190E-01  0.733954E-01  0.738552E-01  0.742984E-01  0.747249E-01
  0.751346E-01  0.755274E-01  0.759034E-01  0.762624E-01  0.766044E-01
  0.769294E-01  0.772373E-01  0.775280E-01  0.778013E-01  0.780571E-01
  0.782953E-01  0.785156E-01  0.787179E-01  0.789019E-01  0.790675E-01
  0.792142E-01  0.793418E-01  0.794499E-01  0.795378E-01  0.796050E-01
  0.796511E-01  0.796753E-01  0.796772E-01  0.796560E-01  0.796110E-01
  0.795415E-01  0.794465E-01  0.793255E-01  0.791775E-01  0.790017E-01
  0.787973E-01  0.785632E-01  0.782988E-01  0.780033E-01  0.776757E-01
  0.773153E-01  0.769213E-01  0.764929E-01  0.760295E-01  0.755306E-01
  0.749958E-01  0.744248E-01  0.738172E-01  0.731729E-01  0.724918E-01
  0.717739E-01  0.710194E-01  0.702285E-01  0.694017E-01  0.685393E-01
  0.676421E-01  0.667108E-01  0.657462E-01  0.647494E-01  0.637213E-01
  0.626631E-01  0.615760E-01  0.604613E-01  0.593205E-01  0.581548E-01
  0.569657E-01  0.557546E-01  0.545230E-01  0.532720E-01  0.520031E-01
  0.507173E-01  0.494157E-01  0.480990E-01  0.467680E-01  0.454231E-01
  0.440643E-01  0.426914E-01  0.413042E-01  0.399024E-01  0.384859E-01
  0.370552E-01  0.356116E-01  0.341590E-01  0.327052E-01  0.312649E-01
  0.298634E-01  0.285387E-01  0.273447E-01  0.266645E-01  0.260960E-01
  0.256588E-01  0.253573E-01  0.251776E-01  0.251014E-01  0.251139E-01
  0.252049E-01  0.253669E-01  0.255941E-01  0.259143E-01  0.263475E-01
  0.269073E-01  0.276047E-01  0.284505E-01  0.294561E-01  0.306334E-01
  0.319963E-01  0.335606E-01  0.353446E-01  0.373710E-01  0.396667E-01
  0.422582E-01  0.451295E-01  0.483896E-01  0.521159E-01  0.563462E-01
  0.611670E-01  0.667048E-01  0.731612E-01  0.806964E-01  0.896737E-01
  0.100541E+00  0.114078E+00  0.131445E+00  0.154938E+00  0.189221E+00
  0.246335E+00  0.363165E+00  0.388760E+00 -0.430777E+00 -0.398830E+00
 -0.278983E+00 -0.217137E+00 -0.178535E+00 -0.151528E+00 -0.131313E+00
 -0.115492E+00 -0.102749E+00 -0.922351E-01 -0.834259E-01 -0.758981E-01
 -0.694352E-01 -0.638119E-01 -0.588969E-01 -0.546330E-01 -0.508161E-01
 -0.474238E-01 -0.444202E-01 -0.417591E-01 -0.394031E-01 -0.373214E-01
 -0.354903E-01 -0.338920E-01 -0.324935E-01 -0.312755E-01 -0.302272E-01
 -0.293358E-01 -0.285859E-01 -0.279569E-01 -0.274178E-01 -0.269460E-01
 -0.265434E-01 -0.262098E-01 -0.259467E-01 -0.257618E-01 -0.256683E-01
 -0.256856E-01 -0.258367E-01 -0.261452E-01 -0.266489E-01 -0.269616E-01
 -0.271757E-01 -0.273278E-01 -0.274421E-01 -0.275365E-01 -0.276265E-01
 -0.277252E-01 -0.278432E-01 -0.279895E-01 -0.281712E-01 -0.283941E-01
 -0.286629E-01 -0.289813E-01 -0.293521E-01 -0.297772E-01 -0.302579E-01
 -0.307946E-01 -0.313875E-01 -0.320359E-01 -0.327392E-01 -0.334959E-01
 -0.343046E-01 -0.351633E-01 -0.360699E-01 -0.370221E-01 -0.380174E-01
 -0.390532E-01 -0.401266E-01 -0.412348E-01 -0.423748E-01 -0.435436E-01
 -0.447381E-01 -0.459552E-01 -0.471917E-01 -0.484444E-01 -0.497100E-01
 -0.509855E-01 -0.522675E-01 -0.535529E-01 -0.548384E-01 -0.561211E-01
 -0.573976E-01 -0.586650E-01 -0.599202E-01 -0.611602E-01 -0.623821E-01
 -0.635830E-01 -0.647598E-01 -0.659100E-01 -0.670305E-01 -0.681187E-01
 -0.691722E-01 -0.701885E-01 -0.711652E-01 -0.721000E-01 -0.729907E-01
 -0.738352E-01 -0.746316E-01 -0.753778E-01 -0.760720E-01 -0.767128E-01
 -0.772988E-01 -0.778285E-01 -0.783008E-01 -0.787146E-01 -0.790691E-01
 -0.793637E-01 -0.795979E-01 -0.797714E-01 -0.798842E-01 -0.799363E-01
 -0.799280E-01 -0.798599E-01 -0.797326E-01 -0.795470E-01 -0.793043E-01
 -0.790058E-01 -0.786531E-01 -0.782476E-01 -0.777912E-01 -0.772859E-01
 -0.767335E-01 -0.761365E-01 -0.754970E-01 -0.748176E-01 -0.741006E-01
 -0.733486E-01 -0.725642E-01 -0.717502E-01 -0.709092E-01 -0.700440E-01
 -0.691570E-01 -0.682511E-01 -0.673287E-01 -0.663922E-01 -0.654442E-01
 -0.644869E-01 -0.635226E-01 -0.625533E-01 -0.615810E-01 -0.606075E-01
 -0.596345E-01 -0.586635E-01 -0.576958E-01 -0.567326E-01 -0.557748E-01
 -0.548234E-01 -0.538787E-01 -0.529414E-01 -0.520116E-01 -0.510894E-01
 -0.501747E-01 -0.492671E-01 -0.483661E-01 -0.474710E-01 -0.465810E-01
 -0.456950E-01 -0.448117E-01 -0.439298E-01 -0.430477E-01 -0.421637E-01
 -0.412760E-01 -0.403826E-01 -0.394812E-01 -0.385697E-01 -0.376455E-01
 -0.367062E-01 -0.357488E-01 -0.347706E-01 -0.337685E-01 -0.327393E-01
 -0.316795E-01 -0.305853E-01 -0.294529E-01 -0.282778E-01 -0.270553E-01
 -0.257800E-01 -0.244459E-01 -0.230462E-01 -0.215726E-01 -0.200157E-01
 -0.183639E-01 -0.166032E-01 -0.147169E-01 -0.126849E-01 -0.104859E-01
 -0.810356E-02 -0.554515E-02 -0.288121E-02 -0.274828E-03  0.227491E-02
  0.485531E-02  0.743943E-02  0.997792E-02  0.124359E-01  0.147959E-01
  0.170529E-01  0.192095E-01  0.212712E-01  0.232448E-01  0.251371E-01
  0.269547E-01  0.287034E-01  0.303886E-01  0.320150E-01  0.335868E-01
  0.351077E-01  0.365813E-01  0.380104E-01  0.393979E-01  0.407463E-01
  0.420579E-01  0.433347E-01  0.445788E-01  0.457919E-01  0.469756E-01
  0.481315E-01  0.492611E-01  0.503656E-01  0.514462E-01  0.525041E-01
  0.535403E-01  0.545557E-01  0.555512E-01  0.565276E-01  0.574856E-01
  0.584258E-01  0.593487E-01  0.602549E-01  0.611447E-01  0.620184E-01
  0.628763E-01  0.637187E-01  0.645457E-01  0.653575E-01  0.661540E-01
  0.669354E-01  0.677017E-01  0.684527E-01  0.691884E-01  0.699088E-01
  0.706137E-01  0.713030E-01  0.719764E-01  0.726340E-01  0.732755E-01
  0.739006E-01  0.745094E-01  0.751017E-01  0.756772E-01  0.762359E-01
  0.767777E-01  0.773023E-01  0.778096E-01  0.782996E-01  0.787722E-01
  0.792273E-01  0.796648E-01  0.800846E-01  0.804868E-01  0.808713E-01
  0.812379E-01  0.815867E-01  0.819175E-01  0.822303E-01  0.825249E-01
  0.828011E-01  0.830588E-01  0.832978E-01  0.835179E-01  0.837189E-01
  0.839004E-01  0.840623E-01  0.842042E-01  0.843257E-01  0.844261E-01
  0.845050E-01  0.845619E-01  0.845961E-01  0.846071E-01  0.845942E-01
  0.845567E-01  0.844939E-01  0.844049E-01  0.842891E-01  0.841456E-01
  0.839737E-01  0.837724E-01  0.835409E-01  0.832785E-01  0.829843E-01
  0.826576E-01  0.822975E-01  0.819033E-01  0.814742E-01  0.810098E-01
  0.805095E-01  0.799729E-01  0.793997E-01  0.787896E-01  0.781426E-01
  0.774584E-01  0.767372E-01  0.759792E-01  0.751845E-01  0.743536E-01
  0.734870E-01  0.725853E-01  0.716493E-01  0.706797E-01  0.696777E-01
  0.686441E-01  0.675801E-01  0.664868E-01  0.653657E-01  0.642179E-01
  0.630449E-01  0.618479E-01  0.606285E-01  0.593878E-01  0.581272E-01
  0.568477E-01  0.555506E-01  0.542367E-01  0.529067E-01  0.515612E-01
  0.502006E-01  0.488249E-01  0.474338E-01  0.460272E-01  0.446049E-01
  0.431669E-01  0.417139E-01  0.402480E-01  0.387732E-01  0.372979E-01
  0.358363E-01  0.344119E-01  0.330585E-01  0.318250E-01  0.311055E-01
  0.304725E-01  0.299515E-01  0.295596E-01  0.292937E-01  0.291411E-01
  0.290886E-01  0.291262E-01  0.292456E-01  0.294412E-01  0.297418E-01
  0.301696E-01  0.307398E-01  0.314646E-01  0.323558E-01  0.334256E-01
  0.346869E-01  0.361544E-01  0.378449E-01  0.397779E-01  0.419778E-01
  0.444734E-01  0.472927E-01  0.504172E-01  0.539662E-01  0.580245E-01
  0.626325E-01  0.678846E-01  0.739195E-01  0.809587E-01  0.891781E-01
  0.989786E-01  0.110855E+00  0.125673E+00  0.144716E+00  0.170537E+00
  0.208319E+00  0.271457E+00  0.400691E+00  0.430777E+00 -0.477327E+00
 -0.440581E+00 -0.308226E+00 -0.239833E+00 -0.197201E+00 -0.167421E+00
 -0.145161E+00 -0.127762E+00 -0.113765E+00 -0.102228E+00 -0.925709E-01
 -0.843239E-01 -0.772482E-01 -0.710946E-01 -0.657185E-01 -0.610570E-01
 -0.568853E-01 -0.531792E-01 -0.498998E-01 -0.469970E-01 -0.444302E-01
 -0.421661E-01 -0.401791E-01 -0.384497E-01 -0.369428E-01 -0.356376E-01
 -0.345220E-01 -0.335819E-01 -0.328001E-01 -0.321536E-01 -0.316086E-01
 -0.311413E-01 -0.307536E-01 -0.304453E-01 -0.302191E-01 -0.300831E-01
 -0.300509E-01 -0.301396E-01 -0.303666E-01 -0.307460E-01 -0.313071E-01
 -0.317413E-01 -0.320812E-01 -0.323589E-01 -0.325949E-01 -0.328050E-01
 -0.330034E-01 -0.332024E-01 -0.334127E-01 -0.336430E-01 -0.339007E-01
 -0.341920E-01 -0.345218E-01 -0.348943E-01 -0.353125E-01 -0.357789E-01
 -0.362950E-01 -0.368617E-01 -0.374794E-01 -0.381481E-01 -0.388673E-01
 -0.396359E-01 -0.404528E-01 -0.413163E-01 -0.422247E-01 -0.431758E-01
 -0.441674E-01 -0.451972E-01 -0.462625E-01 -0.473605E-01 -0.484887E-01
 -0.496440E-01 -0.508236E-01 -0.520245E-01 -0.532437E-01 -0.544780E-01
 -0.557244E-01 -0.569797E-01 -0.582408E-01 -0.595046E-01 -0.607681E-01
 -0.620280E-01 -0.632814E-01 -0.645252E-01 -0.657565E-01 -0.669722E-01
 -0.681695E-01 -0.693455E-01 -0.704973E-01 -0.716222E-01 -0.727173E-01
 -0.737800E-01 -0.748078E-01 -0.757983E-01 -0.767492E-01 -0.776581E-01
 -0.785228E-01 -0.793414E-01 -0.801118E-01 -0.808320E-01 -0.815003E-01
 -0.821152E-01 -0.826752E-01 -0.831791E-01 -0.836256E-01 -0.840138E-01
 -0.843427E-01 -0.846117E-01 -0.848205E-01 -0.849687E-01 -0.850562E-01
 -0.850832E-01 -0.850499E-01 -0.849569E-01 -0.848047E-01 -0.845944E-01
 -0.843269E-01 -0.840038E-01 -0.836264E-01 -0.831964E-01 -0.827154E-01
 -0.821854E-01 -0.816084E-01 -0.809865E-01 -0.803221E-01 -0.796175E-01
 -0.788752E-01 -0.780976E-01 -0.772874E-01 -0.764471E-01 -0.755794E-01
 -0.746869E-01 -0.737722E-01 -0.728378E-01 -0.718862E-01 -0.709199E-01
 -0.699412E-01 -0.689523E-01 -0.679553E-01 -0.669523E-01 -0.659452E-01
 -0.649356E-01 -0.639252E-01 -0.629155E-01 -0.619076E-01 -0.609028E-01
 -0.599018E-01 -0.589054E-01 -0.579143E-01 -0.569286E-01 -0.559488E-01
 -0.549746E-01 -0.540061E-01 -0.530428E-01 -0.520842E-01 -0.511295E-01
 -0.501779E-01 -0.492283E-01 -0.482794E-01 -0.473299E-01 -0.463782E-01
 -0.454226E-01 -0.444612E-01 -0.434921E-01 -0.425130E-01 -0.415216E-01
 -0.405156E-01 -0.394923E-01 -0.384489E-01 -0.373825E-01 -0.362900E-01
 -0.351681E-01 -0.340133E-01 -0.328218E-01 -0.315894E-01 -0.303116E-01
 -0.289836E-01 -0.275998E-01 -0.261538E-01 -0.246386E-01 -0.230456E-01
 -0.213650E-01 -0.195849E-01 -0.176911E-01 -0.156662E-01 -0.134903E-01
 -0.111420E-01 -0.860550E-02 -0.588966E-02 -0.306831E-02 -0.310250E-03
  0.238681E-02  0.511446E-02  0.784533E-02  0.105287E-01  0.131286E-01
  0.156269E-01  0.180182E-01  0.203050E-01  0.224928E-01  0.245887E-01
  0.265995E-01  0.285319E-01  0.303922E-01  0.321857E-01  0.339175E-01
  0.355918E-01  0.372128E-01  0.387838E-01  0.403080E-01  0.417884E-01
  0.432275E-01  0.446277E-01  0.459913E-01  0.473202E-01  0.486163E-01
  0.498813E-01  0.511167E-01  0.523242E-01  0.535049E-01  0.546603E-01
  0.557913E-01  0.568992E-01  0.579848E-01  0.590491E-01  0.600928E-01
  0.611168E-01  0.621215E-01  0.631077E-01  0.640758E-01  0.650262E-01
  0.659593E-01  0.668754E-01  0.677747E-01  0.686575E-01  0.695238E-01
  0.703738E-01  0.712075E-01  0.720249E-01  0.728261E-01  0.736110E-01
  0.743794E-01  0.751313E-01  0.758666E-01  0.765852E-01  0.772869E-01
  0.779715E-01  0.786389E-01  0.792890E-01  0.799216E-01  0.805366E-01
  0.811339E-01  0.817134E-01  0.822748E-01  0.828180E-01  0.833431E-01
  0.838498E-01  0.843381E-01  0.848079E-01  0.852591E-01  0.856918E-01
  0.861058E-01  0.865011E-01  0.868776E-01  0.872352E-01  0.875738E-01
  0.878932E-01  0.881933E-01  0.884739E-01  0.887348E-01  0.889758E-01
  0.891967E-01  0.893972E-01  0.895770E-01  0.897358E-01  0.898732E-01
  0.899886E-01  0.900815E-01  0.901513E-01  0.901976E-01  0.902197E-01
  0.902170E-01  0.901888E-01  0.901343E-01  0.900529E-01  0.899437E-01
  0.898061E-01  0.896393E-01  0.894424E-01  0.892145E-01  0.889550E-01
  0.886631E-01  0.883380E-01  0.879790E-01  0.875853E-01  0.871563E-01
  0.866913E-01  0.861901E-01  0.856521E-01  0.850771E-01  0.844649E-01
  0.838153E-01  0.831283E-01  0.824040E-01  0.816424E-01  0.808440E-01
  0.800090E-01  0.791381E-01  0.782317E-01  0.772908E-01  0.763160E-01
  0.753084E-01  0.742689E-01  0.731986E-01  0.720987E-01  0.709705E-01
  0.698152E-01  0.686340E-01  0.674284E-01  0.661996E-01  0.649489E-01
  0.636773E-01  0.623862E-01  0.610763E-01  0.597486E-01  0.584038E-01
  0.570422E-01  0.556643E-01  0.542699E-01  0.528589E-01  0.514312E-01
  0.499867E-01  0.485256E-01  0.470491E-01  0.455593E-01  0.440610E-01
  0.425621E-01  0.410766E-01  0.396258E-01  0.382402E-01  0.369650E-01
  0.362031E-01  0.355035E-01  0.348948E-01  0.344034E-01  0.340376E-01
  0.337926E-01  0.336590E-01  0.336276E-01  0.336905E-01  0.338423E-01
  0.341130E-01  0.345270E-01  0.351013E-01  0.358497E-01  0.367851E-01
  0.379206E-01  0.392701E-01  0.408492E-01  0.426760E-01  0.447711E-01
  0.471608E-01  0.498757E-01  0.529459E-01  0.563501E-01  0.602189E-01
  0.646450E-01  0.696724E-01  0.754038E-01  0.819917E-01  0.896799E-01
  0.986622E-01  0.109381E+00  0.122385E+00  0.138633E+00  0.159552E+00
  0.187977E+00  0.229675E+00  0.299545E+00  0.442525E+00  0.477327E+00
 -0.528900E+00 -0.487156E+00 -0.340973E+00 -0.265273E+00 -0.218131E+00
 -0.185242E+00 -0.160691E+00 -0.141523E+00 -0.126120E+00 -0.113438E+00
 -0.102831E+00 -0.937796E-01 -0.860192E-01 -0.792739E-01 -0.733842E-01
 -0.682801E-01 -0.637143E-01 -0.596602E-01 -0.560758E-01 -0.529065E-01
 -0.501080E-01 -0.476445E-01 -0.454881E-01 -0.436175E-01 -0.419954E-01
 -0.405990E-01 -0.394152E-01 -0.384281E-01 -0.376184E-01 -0.369606E-01
 -0.364180E-01 -0.359656E-01 -0.356048E-01 -0.353360E-01 -0.351621E-01
 -0.350916E-01 -0.351365E-01 -0.353104E-01 -0.356230E-01 -0.360797E-01
 -0.367036E-01 -0.372602E-01 -0.377255E-01 -0.381291E-01 -0.384884E-01
 -0.388172E-01 -0.391280E-01 -0.394323E-01 -0.397401E-01 -0.400602E-01
 -0.404000E-01 -0.407656E-01 -0.411623E-01 -0.415944E-01 -0.420655E-01
 -0.425782E-01 -0.431344E-01 -0.437355E-01 -0.443821E-01 -0.450747E-01
 -0.458129E-01 -0.465962E-01 -0.474237E-01 -0.482940E-01 -0.492057E-01
 -0.501570E-01 -0.511459E-01 -0.521702E-01 -0.532275E-01 -0.543154E-01
 -0.554313E-01 -0.565725E-01 -0.577363E-01 -0.589199E-01 -0.601203E-01
 -0.613347E-01 -0.625599E-01 -0.637931E-01 -0.650311E-01 -0.662711E-01
 -0.675098E-01 -0.687444E-01 -0.699719E-01 -0.711892E-01 -0.723935E-01
 -0.735818E-01 -0.747513E-01 -0.758992E-01 -0.770226E-01 -0.781187E-01
 -0.791848E-01 -0.802184E-01 -0.812168E-01 -0.821778E-01 -0.830990E-01
 -0.839782E-01 -0.848131E-01 -0.856018E-01 -0.863422E-01 -0.870324E-01
 -0.876707E-01 -0.882556E-01 -0.887857E-01 -0.892596E-01 -0.896762E-01
 -0.900345E-01 -0.903336E-01 -0.905729E-01 -0.907521E-01 -0.908707E-01
 -0.909287E-01 -0.909263E-01 -0.908637E-01 -0.907413E-01 -0.905600E-01
 -0.903205E-01 -0.900241E-01 -0.896719E-01 -0.892655E-01 -0.888064E-01
 -0.882963E-01 -0.877371E-01 -0.871308E-01 -0.864796E-01 -0.857856E-01
 -0.850512E-01 -0.842787E-01 -0.834707E-01 -0.826296E-01 -0.817580E-01
 -0.808585E-01 -0.799336E-01 -0.789859E-01 -0.780177E-01 -0.770315E-01
 -0.760298E-01 -0.750146E-01 -0.739882E-01 -0.729526E-01 -0.719098E-01
 -0.708616E-01 -0.698095E-01 -0.687553E-01 -0.677001E-01 -0.666452E-01
 -0.655916E-01 -0.645402E-01 -0.634917E-01 -0.624464E-01 -0.614048E-01
 -0.603670E-01 -0.593329E-01 -0.583023E-01 -0.572749E-01 -0.562501E-01
 -0.552271E-01 -0.542049E-01 -0.531826E-01 -0.521588E-01 -0.511322E-01
 -0.501012E-01 -0.490640E-01 -0.480189E-01 -0.469637E-01 -0.458963E-01
 -0.448145E-01 -0.437156E-01 -0.425972E-01 -0.414564E-01 -0.402902E-01
 -0.390955E-01 -0.378688E-01 -0.366067E-01 -0.353052E-01 -0.339600E-01
 -0.325665E-01 -0.311195E-01 -0.296134E-01 -0.280417E-01 -0.263968E-01
 -0.246700E-01 -0.228511E-01 -0.209280E-01 -0.188860E-01 -0.167076E-01
 -0.143727E-01 -0.118600E-01 -0.915426E-02 -0.626578E-02 -0.327176E-02
 -0.347146E-03  0.251193E-02  0.540173E-02  0.829449E-02  0.111380E-01
  0.138950E-01  0.165467E-01  0.190874E-01  0.215192E-01  0.238479E-01
  0.260804E-01  0.282239E-01  0.302854E-01  0.322710E-01  0.341866E-01
  0.360371E-01  0.378273E-01  0.395611E-01  0.412423E-01  0.428742E-01
  0.444598E-01  0.460017E-01  0.475025E-01  0.489645E-01  0.503898E-01
  0.517802E-01  0.531376E-01  0.544636E-01  0.557597E-01  0.570273E-01
  0.582678E-01  0.594823E-01  0.606719E-01  0.618377E-01  0.629805E-01
  0.641012E-01  0.652005E-01  0.662791E-01  0.673377E-01  0.683767E-01
  0.693966E-01  0.703978E-01  0.713806E-01  0.723452E-01  0.732920E-01
  0.742210E-01  0.751324E-01  0.760263E-01  0.769027E-01  0.777616E-01
  0.786030E-01  0.794268E-01  0.802329E-01  0.810213E-01  0.817919E-01
  0.825444E-01  0.832789E-01  0.839950E-01  0.846928E-01  0.853721E-01
  0.860327E-01  0.866746E-01  0.872976E-01  0.879016E-01  0.884864E-01
  0.890519E-01  0.895981E-01  0.901248E-01  0.906321E-01  0.911198E-01
  0.915878E-01  0.920362E-01  0.924647E-01  0.928734E-01  0.932621E-01
  0.936307E-01  0.939790E-01  0.943069E-01  0.946142E-01  0.949008E-01
  0.951663E-01  0.954105E-01  0.956333E-01  0.958342E-01  0.960130E-01
  0.961693E-01  0.963024E-01  0.964120E-01  0.964974E-01  0.965582E-01
  0.965937E-01  0.966034E-01  0.965865E-01  0.965425E-01  0.964704E-01
  0.963697E-01  0.962397E-01  0.960795E-01  0.958884E-01  0.956655E-01
  0.954102E-01  0.951218E-01  0.947995E-01  0.944426E-01  0.940503E-01
  0.936221E-01  0.931574E-01  0.926559E-01  0.921172E-01  0.915410E-01
  0.909271E-01  0.902754E-01  0.895858E-01  0.888586E-01  0.880937E-01
  0.872917E-01  0.864527E-01  0.855774E-01  0.846664E-01  0.837204E-01
  0.827402E-01  0.817267E-01  0.806810E-01  0.796040E-01  0.784970E-01
  0.773610E-01  0.761974E-01  0.750074E-01  0.737922E-01  0.725531E-01
  0.712912E-01  0.700076E-01  0.687034E-01  0.673794E-01  0.660365E-01
  0.646752E-01  0.632960E-01  0.618990E-01  0.604844E-01  0.590518E-01
  0.576014E-01  0.561332E-01  0.546477E-01  0.531461E-01  0.516311E-01
  0.501075E-01  0.485831E-01  0.470710E-01  0.455907E-01  0.441702E-01
  0.428518E-01  0.420442E-01  0.412762E-01  0.405763E-01  0.399777E-01
  0.394993E-01  0.391456E-01  0.389130E-01  0.387952E-01  0.387852E-01
  0.388788E-01  0.391070E-01  0.394969E-01  0.400675E-01  0.408344E-01
  0.418118E-01  0.430140E-01  0.444559E-01  0.461541E-01  0.481278E-01
  0.503994E-01  0.529967E-01  0.559529E-01  0.592999E-01  0.630134E-01
  0.672366E-01  0.720711E-01  0.775645E-01  0.838295E-01  0.910337E-01
  0.994460E-01  0.109280E+00  0.121025E+00  0.135290E+00  0.153138E+00
  0.176156E+00  0.207497E+00  0.253579E+00  0.330977E+00  0.489181E+00
  0.528900E+00 -0.586037E+00 -0.539127E+00 -0.377670E+00 -0.293815E+00
 -0.241621E+00 -0.205246E+00 -0.178122E+00 -0.156969E+00 -0.139990E+00
 -0.126022E+00 -0.114351E+00 -0.104400E+00 -0.958733E-01 -0.884670E-01
 -0.820041E-01 -0.764067E-01 -0.714025E-01 -0.669622E-01 -0.630401E-01
 -0.595764E-01 -0.565233E-01 -0.538416E-01 -0.515011E-01 -0.494785E-01
 -0.477339E-01 -0.462429E-01 -0.449905E-01 -0.439591E-01 -0.431270E-01
 -0.424659E-01 -0.419362E-01 -0.415113E-01 -0.411924E-01 -0.409798E-01
 -0.408762E-01 -0.408892E-01 -0.410280E-01 -0.413003E-01 -0.417078E-01
 -0.422478E-01 -0.429398E-01 -0.436189E-01 -0.442084E-01 -0.447369E-01
 -0.452196E-01 -0.456682E-01 -0.460938E-01 -0.465067E-01 -0.469163E-01
 -0.473308E-01 -0.477575E-01 -0.482027E-01 -0.486715E-01 -0.491687E-01
 -0.496978E-01 -0.502618E-01 -0.508629E-01 -0.515028E-01 -0.521825E-01
 -0.529027E-01 -0.536634E-01 -0.544645E-01 -0.553052E-01 -0.561847E-01
 -0.571017E-01 -0.580547E-01 -0.590419E-01 -0.600615E-01 -0.611114E-01
 -0.621893E-01 -0.632928E-01 -0.644194E-01 -0.655667E-01 -0.667320E-01
 -0.679124E-01 -0.691052E-01 -0.703076E-01 -0.715167E-01 -0.727295E-01
 -0.739431E-01 -0.751547E-01 -0.763612E-01 -0.775598E-01 -0.787477E-01
 -0.799218E-01 -0.810794E-01 -0.822177E-01 -0.833339E-01 -0.844251E-01
 -0.854888E-01 -0.865221E-01 -0.875226E-01 -0.884877E-01 -0.894151E-01
 -0.903025E-01 -0.911477E-01 -0.919485E-01 -0.927029E-01 -0.934090E-01
 -0.940648E-01 -0.946686E-01 -0.952190E-01 -0.957145E-01 -0.961538E-01
 -0.965359E-01 -0.968596E-01 -0.971242E-01 -0.973291E-01 -0.974737E-01
 -0.975580E-01 -0.975817E-01 -0.975450E-01 -0.974481E-01 -0.972916E-01
 -0.970761E-01 -0.968025E-01 -0.964719E-01 -0.960856E-01 -0.956451E-01
 -0.951517E-01 -0.946073E-01 -0.940137E-01 -0.933729E-01 -0.926868E-01
 -0.919578E-01 -0.911881E-01 -0.903799E-01 -0.895358E-01 -0.886581E-01
 -0.877494E-01 -0.868121E-01 -0.858487E-01 -0.848618E-01 -0.838535E-01
 -0.828264E-01 -0.817826E-01 -0.807243E-01 -0.796536E-01 -0.785725E-01
 -0.774828E-01 -0.763862E-01 -0.752843E-01 -0.741786E-01 -0.730702E-01
 -0.719604E-01 -0.708501E-01 -0.697401E-01 -0.686309E-01 -0.675230E-01
 -0.664166E-01 -0.653119E-01 -0.642088E-01 -0.631069E-01 -0.620059E-01
 -0.609052E-01 -0.598040E-01 -0.587013E-01 -0.575961E-01 -0.564870E-01
 -0.553726E-01 -0.542515E-01 -0.531217E-01 -0.519816E-01 -0.508290E-01
 -0.496617E-01 -0.484775E-01 -0.472737E-01 -0.460479E-01 -0.447971E-01
 -0.435183E-01 -0.422083E-01 -0.408636E-01 -0.394806E-01 -0.380552E-01
 -0.365831E-01 -0.350595E-01 -0.334790E-01 -0.318357E-01 -0.301230E-01
 -0.283330E-01 -0.264568E-01 -0.244838E-01 -0.224016E-01 -0.201954E-01
 -0.178474E-01 -0.153373E-01 -0.126441E-01 -0.975277E-02 -0.667518E-02
 -0.349200E-02 -0.384650E-03  0.265237E-02  0.572049E-02  0.879153E-02
  0.118116E-01  0.147423E-01  0.175638E-01  0.202700E-01  0.228630E-01
  0.253485E-01  0.277335E-01  0.300254E-01  0.322312E-01  0.343575E-01
  0.364100E-01  0.383941E-01  0.403146E-01  0.421757E-01  0.439811E-01
  0.457345E-01  0.474389E-01  0.490971E-01  0.507117E-01  0.522851E-01
  0.538195E-01  0.553168E-01  0.567790E-01  0.582077E-01  0.596044E-01
  0.609708E-01  0.623080E-01  0.636173E-01  0.649000E-01  0.661569E-01
  0.673891E-01  0.685975E-01  0.697827E-01  0.709456E-01  0.720868E-01
  0.732068E-01  0.743062E-01  0.753852E-01  0.764443E-01  0.774837E-01
  0.785038E-01  0.795046E-01  0.804864E-01  0.814493E-01  0.823933E-01
  0.833184E-01  0.842247E-01  0.851121E-01  0.859805E-01  0.868300E-01
  0.876603E-01  0.884714E-01  0.892631E-01  0.900354E-01  0.907881E-01
  0.915211E-01  0.922343E-01  0.929275E-01  0.936007E-01  0.942537E-01
  0.948864E-01  0.954987E-01  0.960904E-01  0.966616E-01  0.972121E-01
  0.977418E-01  0.982507E-01  0.987387E-01  0.992057E-01  0.996517E-01
  0.100076E+00  0.100480E+00  0.100862E+00  0.101222E+00  0.101560E+00
  0.101877E+00  0.102171E+00  0.102443E+00  0.102691E+00  0.102917E+00
  0.103120E+00  0.103298E+00  0.103452E+00  0.103582E+00  0.103686E+00
  0.103764E+00  0.103815E+00  0.103840E+00  0.103837E+00  0.103806E+00
  0.103746E+00  0.103655E+00  0.103535E+00  0.103383E+00  0.103200E+00
  0.102984E+00  0.102734E+00  0.102451E+00  0.102133E+00  0.101779E+00
  0.101389E+00  0.100963E+00  0.100500E+00  0.999990E-01  0.994603E-01
  0.988837E-01  0.982687E-01  0.976155E-01  0.969240E-01  0.961942E-01
  0.954265E-01  0.946211E-01  0.937783E-01  0.928988E-01  0.919831E-01
  0.910320E-01  0.900463E-01  0.890268E-01  0.879745E-01  0.868905E-01
  0.857758E-01  0.846316E-01  0.834591E-01  0.822594E-01  0.810337E-01
  0.797833E-01  0.785091E-01  0.772123E-01  0.758938E-01  0.745544E-01
  0.731947E-01  0.718155E-01  0.704170E-01  0.689995E-01  0.675630E-01
  0.661074E-01  0.646329E-01  0.631395E-01  0.616282E-01  0.601004E-01
  0.585588E-01  0.570081E-01  0.554562E-01  0.539151E-01  0.524028E-01
  0.509453E-01  0.495827E-01  0.487266E-01  0.478883E-01  0.470949E-01
  0.463831E-01  0.457806E-01  0.453021E-01  0.449518E-01  0.447279E-01
  0.446265E-01  0.446449E-01  0.448158E-01  0.451689E-01  0.457260E-01
  0.465048E-01  0.475209E-01  0.487900E-01  0.503282E-01  0.521532E-01
  0.542856E-01  0.567493E-01  0.595742E-01  0.627958E-01  0.664483E-01
  0.705046E-01  0.751211E-01  0.804096E-01  0.864220E-01  0.932818E-01
  0.101174E+00  0.110395E+00  0.121181E+00  0.134075E+00  0.149750E+00
  0.169391E+00  0.194762E+00  0.229372E+00  0.280365E+00  0.366179E+00
  0.541227E+00  0.586037E+00 -0.649339E+00 -0.597127E+00 -0.418815E+00
 -0.325859E+00 -0.268006E+00 -0.227719E+00 -0.197706E+00 -0.174323E+00
 -0.155572E+00 -0.140162E+00 -0.127297E+00 -0.116337E+00 -0.106953E+00
 -0.988072E-01 -0.917039E-01 -0.855558E-01 -0.800633E-01 -0.751939E-01
 -0.708973E-01 -0.671085E-01 -0.637751E-01 -0.608546E-01 -0.583141E-01
 -0.561280E-01 -0.542537E-01 -0.526648E-01 -0.513445E-01 -0.502730E-01
 -0.494259E-01 -0.487715E-01 -0.482674E-01 -0.478856E-01 -0.476263E-01
 -0.474891E-01 -0.474759E-01 -0.475916E-01 -0.478410E-01 -0.482243E-01
 -0.487349E-01 -0.493639E-01 -0.501291E-01 -0.509299E-01 -0.516414E-01
 -0.522925E-01 -0.528971E-01 -0.534651E-01 -0.540061E-01 -0.545292E-01
 -0.550431E-01 -0.555553E-01 -0.560728E-01 -0.566017E-01 -0.571473E-01
 -0.577140E-01 -0.583058E-01 -0.589257E-01 -0.595763E-01 -0.602593E-01
 -0.609762E-01 -0.617278E-01 -0.625147E-01 -0.633367E-01 -0.641936E-01
 -0.650847E-01 -0.660092E-01 -0.669657E-01 -0.679528E-01 -0.689689E-01
 -0.700120E-01 -0.710803E-01 -0.721715E-01 -0.732834E-01 -0.744136E-01
 -0.755596E-01 -0.767190E-01 -0.778889E-01 -0.790667E-01 -0.802498E-01
 -0.814352E-01 -0.826202E-01 -0.838020E-01 -0.849777E-01 -0.861445E-01
 -0.872997E-01 -0.884404E-01 -0.895639E-01 -0.906673E-01 -0.917481E-01
 -0.928033E-01 -0.938305E-01 -0.948269E-01 -0.957901E-01 -0.967175E-01
 -0.976069E-01 -0.984560E-01 -0.992626E-01 -0.100025E+00 -0.100740E+00
 -0.101407E+00 -0.102023E+00 -0.102588E+00 -0.103098E+00 -0.103554E+00
 -0.103954E+00 -0.104296E+00 -0.104580E+00 -0.104805E+00 -0.104970E+00
 -0.105075E+00 -0.105119E+00 -0.105103E+00 -0.105027E+00 -0.104890E+00
 -0.104693E+00 -0.104438E+00 -0.104125E+00 -0.103754E+00 -0.103328E+00
 -0.102847E+00 -0.102314E+00 -0.101729E+00 -0.101095E+00 -0.100413E+00
 -0.996863E-01 -0.989159E-01 -0.981044E-01 -0.972540E-01 -0.963672E-01
 -0.954462E-01 -0.944935E-01 -0.935115E-01 -0.925027E-01 -0.914693E-01
 -0.904137E-01 -0.893381E-01 -0.882447E-01 -0.871355E-01 -0.860127E-01
 -0.848780E-01 -0.837331E-01 -0.825798E-01 -0.814196E-01 -0.802536E-01
 -0.790833E-01 -0.779096E-01 -0.767333E-01 -0.755552E-01 -0.743758E-01
 -0.731955E-01 -0.720145E-01 -0.708328E-01 -0.696503E-01 -0.684667E-01
 -0.672815E-01 -0.660941E-01 -0.649036E-01 -0.637092E-01 -0.625096E-01
 -0.613036E-01 -0.600897E-01 -0.588664E-01 -0.576319E-01 -0.563843E-01
 -0.551216E-01 -0.538415E-01 -0.525418E-01 -0.512198E-01 -0.498729E-01
 -0.484983E-01 -0.470928E-01 -0.456531E-01 -0.441758E-01 -0.426570E-01
 -0.410926E-01 -0.394781E-01 -0.378087E-01 -0.360787E-01 -0.342820E-01
 -0.324118E-01 -0.304600E-01 -0.284174E-01 -0.262733E-01 -0.240150E-01
 -0.216273E-01 -0.190923E-01 -0.163898E-01 -0.134985E-01 -0.104040E-01
 -0.711947E-02 -0.372921E-02 -0.421576E-03  0.281071E-02  0.607469E-02
  0.934176E-02  0.125563E-01  0.156785E-01  0.186875E-01  0.215770E-01
  0.243487E-01  0.270083E-01  0.295630E-01  0.320202E-01  0.343872E-01
  0.366706E-01  0.388765E-01  0.410104E-01  0.430772E-01  0.450812E-01
  0.470264E-01  0.489166E-01  0.507548E-01  0.525440E-01  0.542870E-01
  0.559862E-01  0.576439E-01  0.592620E-01  0.608427E-01  0.623876E-01
  0.638983E-01  0.653764E-01  0.668233E-01  0.682402E-01  0.696284E-01
  0.709888E-01  0.723226E-01  0.736306E-01  0.749136E-01  0.761724E-01
  0.774076E-01  0.786199E-01  0.798096E-01  0.809774E-01  0.821235E-01
  0.832483E-01  0.843520E-01  0.854349E-01  0.864972E-01  0.875389E-01
  0.885602E-01  0.895612E-01  0.905418E-01  0.915020E-01  0.924419E-01
  0.933612E-01  0.942601E-01  0.951383E-01  0.959958E-01  0.968324E-01
  0.976482E-01  0.984428E-01  0.992164E-01  0.999686E-01  0.100700E+00
  0.101409E+00  0.102097E+00  0.102763E+00  0.103407E+00  0.104029E+00
  0.104629E+00  0.105208E+00  0.105764E+00  0.106297E+00  0.106809E+00
  0.107298E+00  0.107764E+00  0.108208E+00  0.108629E+00  0.109027E+00
  0.109401E+00  0.109752E+00  0.110080E+00  0.110383E+00  0.110662E+00
  0.110917E+00  0.111147E+00  0.111352E+00  0.111531E+00  0.111684E+00
  0.111810E+00  0.111909E+00  0.111980E+00  0.112023E+00  0.112037E+00
  0.112021E+00  0.111975E+00  0.111898E+00  0.111790E+00  0.111649E+00
  0.111475E+00  0.111268E+00  0.111026E+00  0.110750E+00  0.110437E+00
  0.110089E+00  0.109703E+00  0.109281E+00  0.108820E+00  0.108321E+00
  0.107783E+00  0.107207E+00  0.106592E+00  0.105938E+00  0.105246E+00
  0.104514E+00  0.103744E+00  0.102936E+00  0.102090E+00  0.101206E+00
  0.100286E+00  0.993298E-01  0.983386E-01  0.973129E-01  0.962539E-01
  0.951625E-01  0.940398E-01  0.928868E-01  0.917047E-01  0.904946E-01
  0.892577E-01  0.879950E-01  0.867076E-01  0.853964E-01  0.840623E-01
  0.827062E-01  0.813285E-01  0.799300E-01  0.785108E-01  0.770713E-01
  0.756117E-01  0.741317E-01  0.726318E-01  0.711122E-01  0.695739E-01
  0.680186E-01  0.664490E-01  0.648699E-01  0.632887E-01  0.617166E-01
  0.601705E-01  0.586747E-01  0.572675E-01  0.563603E-01  0.554502E-01
  0.545616E-01  0.537322E-01  0.529963E-01  0.523780E-01  0.518908E-01
  0.515401E-01  0.513261E-01  0.512498E-01  0.513459E-01  0.516472E-01
  0.521788E-01  0.529609E-01  0.540109E-01  0.553462E-01  0.569843E-01
  0.589441E-01  0.612476E-01  0.639205E-01  0.669948E-01  0.705088E-01
  0.744991E-01  0.789356E-01  0.839893E-01  0.897830E-01  0.963739E-01
  0.103898E+00  0.112559E+00  0.122684E+00  0.134536E+00  0.148716E+00
  0.165973E+00  0.187623E+00  0.215633E+00  0.253908E+00  0.310406E+00
  0.405633E+00  0.599297E+00  0.649339E+00 -0.719471E+00 -0.661857E+00
 -0.464970E+00 -0.361859E+00 -0.297665E+00 -0.252986E+00 -0.219726E+00
 -0.193838E+00 -0.173096E+00 -0.156065E+00 -0.141859E+00 -0.129766E+00
 -0.119421E+00 -0.110447E+00 -0.102627E+00 -0.958637E-01 -0.898269E-01
 -0.844801E-01 -0.797680E-01 -0.756196E-01 -0.719776E-01 -0.687956E-01
 -0.660379E-01 -0.636761E-01 -0.616650E-01 -0.599757E-01 -0.585892E-01
 -0.574834E-01 -0.566306E-01 -0.559954E-01 -0.555326E-01 -0.552123E-01
 -0.550330E-01 -0.549930E-01 -0.550917E-01 -0.553299E-01 -0.557057E-01
 -0.562112E-01 -0.568321E-01 -0.575552E-01 -0.583982E-01 -0.593185E-01
 -0.601488E-01 -0.609193E-01 -0.616429E-01 -0.623281E-01 -0.629834E-01
 -0.636167E-01 -0.642356E-01 -0.648473E-01 -0.654580E-01 -0.660736E-01
 -0.666992E-01 -0.673392E-01 -0.679976E-01 -0.686774E-01 -0.693814E-01
 -0.701116E-01 -0.708695E-01 -0.716563E-01 -0.724727E-01 -0.733189E-01
 -0.741949E-01 -0.751004E-01 -0.760346E-01 -0.769967E-01 -0.779853E-01
 -0.789992E-01 -0.800366E-01 -0.810959E-01 -0.821752E-01 -0.832722E-01
 -0.843850E-01 -0.855112E-01 -0.866485E-01 -0.877943E-01 -0.889460E-01
 -0.901012E-01 -0.912572E-01 -0.924112E-01 -0.935606E-01 -0.947028E-01
 -0.958348E-01 -0.969541E-01 -0.980580E-01 -0.991437E-01 -0.100209E+00
 -0.101250E+00 -0.102265E+00 -0.103252E+00 -0.104207E+00 -0.105128E+00
 -0.106013E+00 -0.106860E+00 -0.107665E+00 -0.108428E+00 -0.109147E+00
 -0.109818E+00 -0.110440E+00 -0.111012E+00 -0.111531E+00 -0.111997E+00
 -0.112407E+00 -0.112762E+00 -0.113058E+00 -0.113297E+00 -0.113476E+00
 -0.113595E+00 -0.113654E+00 -0.113652E+00 -0.113590E+00 -0.113467E+00
 -0.113284E+00 -0.113042E+00 -0.112740E+00 -0.112380E+00 -0.111963E+00
 -0.111490E+00 -0.110963E+00 -0.110382E+00 -0.109750E+00 -0.109069E+00
 -0.108339E+00 -0.107564E+00 -0.106745E+00 -0.105884E+00 -0.104984E+00
 -0.104046E+00 -0.103074E+00 -0.102070E+00 -0.101035E+00 -0.999724E-01
 -0.988843E-01 -0.977728E-01 -0.966401E-01 -0.954883E-01 -0.943194E-01
 -0.931352E-01 -0.919376E-01 -0.907282E-01 -0.895086E-01 -0.882801E-01
 -0.870441E-01 -0.858016E-01 -0.845536E-01 -0.833008E-01 -0.820440E-01
 -0.807836E-01 -0.795199E-01 -0.782530E-01 -0.769829E-01 -0.757094E-01
 -0.744323E-01 -0.731509E-01 -0.718646E-01 -0.705726E-01 -0.692738E-01
 -0.679671E-01 -0.666513E-01 -0.653247E-01 -0.639859E-01 -0.626331E-01
 -0.612642E-01 -0.598774E-01 -0.584703E-01 -0.570406E-01 -0.555856E-01
 -0.541028E-01 -0.525890E-01 -0.510413E-01 -0.494562E-01 -0.478302E-01
 -0.461593E-01 -0.444393E-01 -0.426657E-01 -0.408332E-01 -0.389363E-01
 -0.369686E-01 -0.349230E-01 -0.327914E-01 -0.305643E-01 -0.282307E-01
 -0.257777E-01 -0.231900E-01 -0.204495E-01 -0.175358E-01 -0.144276E-01
 -0.111109E-01 -0.760015E-02 -0.398336E-02 -0.456363E-03  0.299003E-02
  0.646890E-02  0.995126E-02  0.133796E-01  0.167126E-01  0.199284E-01
  0.230202E-01  0.259895E-01  0.288421E-01  0.315852E-01  0.342263E-01
  0.367728E-01  0.392315E-01  0.416087E-01  0.439100E-01  0.461405E-01
  0.483047E-01  0.504068E-01  0.524505E-01  0.544391E-01  0.563758E-01
  0.582632E-01  0.601040E-01  0.619006E-01  0.636551E-01  0.653694E-01
  0.670454E-01  0.686849E-01  0.702893E-01  0.718601E-01  0.733987E-01
  0.749063E-01  0.763841E-01  0.778329E-01  0.792538E-01  0.806477E-01
  0.820152E-01  0.833572E-01  0.846743E-01  0.859669E-01  0.872355E-01
  0.884806E-01  0.897026E-01  0.909016E-01  0.920780E-01  0.932320E-01
  0.943637E-01  0.954732E-01  0.965607E-01  0.976262E-01  0.986696E-01
  0.996910E-01  0.100690E+00  0.101668E+00  0.102623E+00  0.103555E+00
  0.104466E+00  0.105354E+00  0.106219E+00  0.107062E+00  0.107881E+00
  0.108678E+00  0.109452E+00  0.110203E+00  0.110931E+00  0.111635E+00
  0.112316E+00  0.112974E+00  0.113608E+00  0.114218E+00  0.114804E+00
  0.115367E+00  0.115905E+00  0.116420E+00  0.116910E+00  0.117376E+00
  0.117817E+00  0.118233E+00  0.118624E+00  0.118991E+00  0.119331E+00
  0.119646E+00  0.119935E+00  0.120197E+00  0.120433E+00  0.120641E+00
  0.120821E+00  0.120974E+00  0.121097E+00  0.121192E+00  0.121257E+00
  0.121291E+00  0.121294E+00  0.121266E+00  0.121205E+00  0.121112E+00
  0.120985E+00  0.120824E+00  0.120628E+00  0.120396E+00  0.120129E+00
  0.119824E+00  0.119483E+00  0.119104E+00  0.118686E+00  0.118229E+00
  0.117734E+00  0.117199E+00  0.116625E+00  0.116011E+00  0.115358E+00
  0.114665E+00  0.113932E+00  0.113161E+00  0.112350E+00  0.111501E+00
  0.110614E+00  0.109690E+00  0.108729E+00  0.107733E+00  0.106701E+00
  0.105635E+00  0.104536E+00  0.103405E+00  0.102243E+00  0.101051E+00
  0.998299E-01  0.985810E-01  0.973053E-01  0.960037E-01  0.946771E-01
  0.933265E-01  0.919525E-01  0.905557E-01  0.891366E-01  0.876957E-01
  0.862331E-01  0.847492E-01  0.832439E-01  0.817175E-01  0.801708E-01
  0.786046E-01  0.770208E-01  0.754222E-01  0.738135E-01  0.722016E-01
  0.705972E-01  0.690162E-01  0.674814E-01  0.660299E-01  0.650693E-01
  0.640862E-01  0.631015E-01  0.621520E-01  0.612755E-01  0.605045E-01
  0.598622E-01  0.593629E-01  0.590135E-01  0.588205E-01  0.588213E-01
  0.590530E-01  0.595444E-01  0.603188E-01  0.613963E-01  0.627960E-01
  0.645369E-01  0.666395E-01  0.691274E-01  0.720281E-01  0.753760E-01
  0.792123E-01  0.835763E-01  0.884351E-01  0.939752E-01  0.100332E+00
  0.107568E+00  0.115834E+00  0.125355E+00  0.136493E+00  0.149540E+00
  0.165162E+00  0.184193E+00  0.208097E+00  0.239068E+00  0.281457E+00
  0.344128E+00  0.449880E+00  0.664092E+00  0.719471E+00 -0.797169E+00
 -0.734096E+00 -0.516763E+00 -0.402327E+00 -0.331028E+00 -0.281416E+00
 -0.244507E+00 -0.215800E+00 -0.192818E+00 -0.173965E+00 -0.158252E+00
 -0.144887E+00 -0.133462E+00 -0.123560E+00 -0.114939E+00 -0.107486E+00
 -0.100842E+00 -0.949639E-01 -0.897905E-01 -0.852441E-01 -0.812621E-01
 -0.777939E-01 -0.748004E-01 -0.722502E-01 -0.700952E-01 -0.683039E-01
 -0.668547E-01 -0.657223E-01 -0.648757E-01 -0.642752E-01 -0.638722E-01
 -0.636348E-01 -0.635588E-01 -0.636396E-01 -0.638726E-01 -0.642523E-01
 -0.647687E-01 -0.654058E-01 -0.661429E-01 -0.669641E-01 -0.678886E-01
 -0.689252E-01 -0.698702E-01 -0.707556E-01 -0.715939E-01 -0.723929E-01
 -0.731597E-01 -0.739013E-01 -0.746244E-01 -0.753354E-01 -0.760400E-01
 -0.767437E-01 -0.774513E-01 -0.781671E-01 -0.788949E-01 -0.796378E-01
 -0.803985E-01 -0.811791E-01 -0.819814E-01 -0.828067E-01 -0.836559E-01
 -0.845294E-01 -0.854274E-01 -0.863498E-01 -0.872962E-01 -0.882659E-01
 -0.892578E-01 -0.902710E-01 -0.913039E-01 -0.923551E-01 -0.934228E-01
 -0.945052E-01 -0.956004E-01 -0.967063E-01 -0.978206E-01 -0.989411E-01
 -0.100065E+00 -0.101191E+00 -0.102315E+00 -0.103436E+00 -0.104551E+00
 -0.105656E+00 -0.106751E+00 -0.107831E+00 -0.108894E+00 -0.109939E+00
 -0.110961E+00 -0.111959E+00 -0.112929E+00 -0.113871E+00 -0.114780E+00
 -0.115654E+00 -0.116492E+00 -0.117291E+00 -0.118048E+00 -0.118762E+00
 -0.119431E+00 -0.120052E+00 -0.120624E+00 -0.121145E+00 -0.121613E+00
 -0.122028E+00 -0.122387E+00 -0.122689E+00 -0.122934E+00 -0.123120E+00
 -0.123246E+00 -0.123313E+00 -0.123319E+00 -0.123264E+00 -0.123149E+00
 -0.122973E+00 -0.122737E+00 -0.122441E+00 -0.122086E+00 -0.121672E+00
 -0.121201E+00 -0.120673E+00 -0.120091E+00 -0.119456E+00 -0.118768E+00
 -0.118031E+00 -0.117245E+00 -0.116413E+00 -0.115537E+00 -0.114618E+00
 -0.113660E+00 -0.112663E+00 -0.111631E+00 -0.110565E+00 -0.109468E+00
 -0.108343E+00 -0.107190E+00 -0.106013E+00 -0.104813E+00 -0.103593E+00
 -0.102354E+00 -0.101098E+00 -0.998266E-01 -0.985417E-01 -0.972447E-01
 -0.959369E-01 -0.946193E-01 -0.932930E-01 -0.919590E-01 -0.906179E-01
 -0.892702E-01 -0.879164E-01 -0.865568E-01 -0.851913E-01 -0.838200E-01
